ply
format ascii 1.0
element vertex 102
property float x
property float y
property float z
end_header
-5.939894654745283 -3.5814980490367354 -0.02883434663342068
-5.939894655456343 -3.5814980494883715 -0.028834346636868836
-5.016129620732774 -10.774254828625441 -0.0992269183469455
-5.791782033273202 -4.909674714775947 -0.043224297232226434
-5.916703123581319 -1.1707965080723086 -0.03814957617870845
-5.8484187708127156 -0.9958057390848633 -0.04301306431191399
-5.916703123581724 -1.17079650807065 -0.038149576178713604
-5.96163631523106 -0.29796453578813914 -0.03542415331805928
-5.9776781918058575 -1.9027250943933014 -0.03375436581710017
-5.915996464419674 -3.9033021655798255 -0.03004236194915858
-4.835457974481101 -9.736338831069036 -0.11591403537791845
-5.890862295665538 -4.468968610804303 -0.0312202237056829
-5.939894655098699 -3.58149804925141 -0.028834346635135573
-5.924129324664931 -3.4849923100473505 -0.029782569649061688
-5.916350619266717 -1.1396620139770597 -0.037419377791886296
-5.166830446813839 -9.235012169741626 -0.08876645291308247
-5.87985368302372 -1.1431755769551049 -0.0399769372536177
-4.835457974464545 -9.73633883098217 -0.11591403537769299
-5.930498182962818 -1.7798811043375573 -0.03621789441334463
-6.0390300736098705 -3.0777453651459172 -0.01820037767479946
-5.859589663161794 -0.44912637383580495 -0.04241203835725516
-6.241845186535758 -1.0183341732381872 -0.018433469376131825
-2.1104998241062884 -34.51607024284183 -0.30931630572977165
-6.039030071239126 -3.0777453639529964 -0.018200377667651268
-5.97667802814682 -3.1565498584754317 -0.021116131575776458
-5.915996465932369 -3.903302166588031 -0.03004236195684217
-5.92412932429738 -3.484992309828643 -0.029782569647213687
-5.879438384712481 -4.436373142940053 -0.025684387837003258
-3.2640409435627125 -20.947229992514295 -0.2284666153869506
-5.951270018531173 -0.8662651551553692 -0.03559853329766416
-6.138878428268261 -0.41945736537871187 -0.026468342731062612
-5.646907901047898 -0.9644832102277363 -0.059793559237640785
-5.189754294930357 -10.421072021297098 -0.08551353728527974
-6.029984804704595 -2.941520970885146 -0.019223739496300334
-5.918953005499233 -4.265805846077985 -0.02776370079269737
-5.189754294973362 -10.421072021369142 -0.08551353728578673
-5.773063262967904 -4.246610192590328 -0.04534371626088458
-5.893542553741666 -2.2972291909221543 -0.03808981347460378
-5.957952776116283 -3.386328317007927 -0.022415074884302867
-6.177927480795398 -2.5499087336778645 -0.01602979240575383
-5.907981216306953 -4.618517730792924 -0.027722557687359834
-3.264040943529362 -20.94722999248644 -0.2284666153863182
-6.066753090401452 -3.1065840144612653 -0.017235670049392488
-5.94420816633733 -3.232302499861134 -0.023676986412830423
-6.183494140866265 -2.545400715846563 -0.01582104088395036
-5.949188745761891 -3.7246873950364643 -0.021209892333993174
-5.889559825209913 -3.9911671069568726 -0.03160040243071322
-5.90245382771494 -3.967104563185213 -0.023815247307549213
-4.923521856257546 -11.497580020249629 -0.10557248871319524
-6.063835927721401 -2.6723534763230417 -0.018179077085148286
-6.0682682859821995 -2.7952304132712626 -0.017838851235472776
-5.914042635091145 -1.184175609007073 -0.03847453234188017
-6.008470667021567 -3.1984634251114814 -0.019807942956700613
-6.018381072584838 -3.047274120240142 -0.019644897292459683
-6.054118385364424 -2.847866059397723 -0.018408544390798417
-5.569690363554361 -0.8373496936700718 -0.06540152348155542
-5.9088318660179935 -4.446233357547767 -0.02811077521322325
-5.971775672365323 -0.4166579381611822 -0.034751179894221614
-5.874846323928862 -0.8340273658106944 -0.04065577537607426
-5.938018850422038 -2.997642955050157 -0.03505950118304116
-5.939770577235252 -0.6888712000033412 -0.0363307704782053
-4.764820075942564 -10.688305188216722 -0.11693336282407543
-5.963036204364032 -3.818175492108127 -0.027687776506419255
-5.918953007246237 -4.26580584734586 -0.0277637008008864
-5.902453828301223 -3.967104563553596 -0.023815247309917624
-6.25810181949335 -2.4236299963760386 -0.016619748557740087
-5.936963189905488 -3.6465720777589645 -0.022306587565785213
-5.010110603268203 -11.277883456637877 -0.09903806626484131
-5.9683860890046265 -3.2549812653115646 -0.021800764781431472
-6.1319451581138456 -1.6647041996955954 -0.024920013213833955
-6.134789477574728 -1.5057983387279457 -0.024566617579063563
-5.837998652715326 -5.457432619071845 -0.02757816563466362
-5.0011695810260015 -11.703802099601122 -0.09919120521730036
-6.177591453361427 -2.6472526392276765 -0.015127648555016375
-6.063901157518409 -2.875151077530931 -0.017963325445313795
-5.997686566380592 -2.924163484644785 -0.027108169080836776
-5.963036204365159 -3.8181754920776108 -0.02768777650642352
-5.010110603276297 -11.27788345672339 -0.09903806626464083
-5.997686566380805 -2.9241634846289566 -0.027108169080837873
-6.0030324034058475 -2.6812444674712848 -0.02646882936142102
-5.939211947118861 -3.992642935896506 -0.026514200782825136
-4.968120458589744 -12.013403952609387 -0.102420506282611
-6.13194515810941 -1.6647041997074037 -0.024920013213816917
-5.84929520020429 -3.8422706394681847 -0.0398526213367791
-5.9330926479344575 -2.1126646167776384 -0.029746673043615706
-5.933092649802145 -2.112664617469647 -0.029746673052983903
-5.7574319709362936 -5.274942769372109 -0.04554143222513171
-5.1307158510190565 -8.990437664960892 -0.06388926382187196
-6.1561720941017395 -2.662452713261771 -0.016049611660354544
-6.008892633173043 -3.3264824227994314 -0.026401870587849995
-5.659507966452931 -5.360505445118328 -0.03563315573837189
-5.976834875875385 -3.7689238691538116 -0.020080435866904695
-5.957704515719641 -3.1401605430267585 -0.0228529099854196
-5.6113724902122835 -5.660780487124364 -0.03760035385050257
-5.762443924608638 -5.518811278726395 -0.04478838353902231
-5.757431968208639 -5.274942766904467 -0.04554143220350824
-5.9645134528346455 -1.1546774525267707 -0.028233088649873384
-5.942237713078595 -3.4578079958227455 -0.02867402184706547
-1.2533343967548596 -35.782721200660106 -0.3741009564558751
-2.097380167672834 -31.834819513773585 -0.2158771890249882
-5.942237713076538 -3.457807995820245 -0.028674021847058424
-1.2533343962976795 -35.782721200066476 -0.3741009564496371
